# .PCD v0.7 - Point Cloud Data file format
VERSION 0.7
FIELDS x y z intensity rgba time_sec time_usec
SIZE 4 4 4 4 4 4 4
TYPE F F F F U U U
COUNT 1 1 1 1 1 1 1
WIDTH 689
HEIGHT 1
VIEWPOINT 0 0 0 1 0 0 0
POINTS 689
DATA ascii
1.715 0.57599998 -0.1 0.047058824 4294901800 1564025923 773145
1.72 0.61299998 -0.1 0.047058824 4294901803 1564025923 738854
1.722 0.67400002 -0.098999999 0.047058824 4294901806 1564025923 738854
1.72 0.69700003 -0.098999999 0.047058824 4294901807 1564025923 755676
1.822 -0.64899999 -0.097000003 0.047058824 4294901822 1564025923 755676
1.819 -0.64499998 -0.097000003 0.047058824 4294901821 1564025923 773145
1.813 -0.63300002 -0.096000001 0.047058824 4294901819 1564025923 773145
1.795 -0.60000002 -0.096000001 0.047058824 4294901814 1564025923 723973
1.784 -0.55800003 -0.096000001 0.047058824 4294901810 1564025923 738854
1.776 -0.50300002 -0.097000003 0.047058824 4294901806 1564025923 755676
1.7640001 -0.43900001 -0.097000003 0.047058824 4294901801 1564025923 773145
1.7460001 -0.40700001 -0.097000003 0.047058824 4294901797 1564025923 755676
1.73 -0.329 -0.097000003 0.047058824 4294901791 1564025923 738854
1.719 -0.24699999 -0.097000003 0.047058824 4294901787 1564025923 723973
1.724 -0.197 -0.097999997 0.047058824 4294901787 1564025923 755676
1.724 -0.11 -0.098999999 0.047058824 4294901786 1564025923 773145
1.725 -0.018999999 -0.1 0.047058824 4294901785 1564025923 723973
1.722 0.0060000001 -0.1 0.047058824 4294901785 1564025923 738854
1.725 0.096000001 -0.1 0.047058824 4294901786 1564025923 723973
1.717 0.171 -0.1 0.047058824 4294901785 1564025923 755676
1.72 0.264 -0.1 0.047058824 4294901788 1564025923 755676
1.717 0.35299999 -0.1 0.047058824 4294901790 1564025923 723973
1.7180001 0.421 -0.1 0.047058824 4294901793 1564025923 723973
1.717 0.514 -0.098999999 0.047058824 4294901797 1564025923 755676
1.726 0.55699998 -0.098999999 0.047058824 4294901800 1564025923 755676
1.722 0.63599998 -0.098999999 0.047058824 4294901804 1564025923 723973
1.722 0.685 -0.097999997 0.047058824 4294901807 1564025923 723973
1.719 0.70200002 -0.097999997 0.047058824 4294901808 1564025923 773145
1.811 -0.64399999 -0.094999999 0.047058824 4294901820 1564025923 755676
1.809 -0.63 -0.094999999 0.047058824 4294901818 1564025923 773145
1.821 -0.62900001 -0.096000001 0.047058824 4294901820 1564025923 755676
1.789 -0.588 -0.094999999 0.047058824 4294901813 1564025923 738854
1.766 -0.53799999 -0.093999997 0.047058824 4294901807 1564025923 723973
1.762 -0.48199999 -0.094999999 0.047058824 4294901803 1564025923 773145
1.752 -0.41600001 -0.096000001 0.047058824 4294901798 1564025923 755676
1.734 -0.36000001 -0.096000001 0.047058824 4294901793 1564025923 723973
1.728 -0.33700001 -0.096000001 0.047058824 4294901791 1564025923 738854
1.734 -0.28299999 -0.097000003 0.047058824 4294901791 1564025923 738854
1.717 -0.257 -0.096000001 0.047058824 4294901787 1564025923 723973
1.728 -0.17299999 -0.097999997 0.047058824 4294901787 1564025923 773145
1.724 -0.083999999 -0.097999997 0.047058824 4294901785 1564025923 755676
1.724 -0.0099999998 -0.098999999 0.047058824 4294901785 1564025923 723973
1.724 0.079999998 -0.098999999 0.047058824 4294901785 1564025923 738854
1.7180001 0.176 -0.098999999 0.047058824 4294901786 1564025923 773145
1.72 0.26800001 -0.098999999 0.047058824 4294901788 1564025923 773145
1.717 0.34 -0.098999999 0.047058824 4294901790 1564025923 738854
1.7180001 0.442 -0.098999999 0.047058824 4294901794 1564025923 738854
1.726 0.491 -0.098999999 0.047058824 4294901797 1564025923 773145
1.715 0.52100003 -0.097999997 0.047058824 4294901797 1564025923 755676
1.715 0.58200002 -0.097999997 0.047058824 4294901800 1564025923 773145
1.719 0.60600001 -0.097999997 0.047058824 4294901802 1564025923 755676
1.72 0.65200001 -0.097000003 0.047058824 4294901805 1564025923 738854
1.721 0.67799997 -0.097000003 0.047058824 4294901807 1564025923 755676
1.722 0.699 -0.097000003 0.047058824 4294901808 1564025923 773792
1.819 -0.64600003 -0.093999997 0.047058824 4294901821 1564025923 773145
1.817 -0.63099998 -0.093999997 0.047058824 4294901820 1564025923 755676
1.79 -0.59500003 -0.093000002 0.047058824 4294901813 1564025923 723973
1.777 -0.55000001 -0.093999997 0.047058824 4294901809 1564025923 738854
1.771 -0.49599999 -0.093999997 0.047058824 4294901805 1564025923 755676
1.751 -0.428 -0.093999997 0.047058824 4294901799 1564025923 773145
1.724 -0.34999999 -0.093999997 0.047058824 4294901791 1564025923 723973
1.73 -0.273 -0.094999999 0.047058824 4294901790 1564025923 738854
1.729 -0.18799999 -0.096000001 0.047058824 4294901788 1564025923 755676
1.724 -0.101 -0.097000003 0.047058824 4294901785 1564025923 773145
1.723 -0.0040000002 -0.097000003 0.047058824 4294901785 1564025923 738854
1.723 0.086000003 -0.097999997 0.047058824 4294901785 1564025923 723973
1.719 0.18000001 -0.097999997 0.047058824 4294901786 1564025923 755676
1.7180001 0.25400001 -0.097999997 0.047058824 4294901787 1564025923 755676
1.723 0.36399999 -0.097999997 0.047058824 4294901791 1564025923 723973
1.711 0.41100001 -0.097000003 0.047058824 4294901791 1564025923 723973
1.717 0.44999999 -0.097000003 0.047058824 4294901794 1564025923 738854
1.729 0.551 -0.097000003 0.047058824 4294901801 1564025923 773145
1.719 0.58999997 -0.097000003 0.047058824 4294901801 1564025923 723973
1.719 0.63999999 -0.096000001 0.047058824 4294901804 1564025923 739501
1.719 0.68199998 -0.096000001 0.047058824 4294901806 1564025923 723973
1.72 0.70099998 -0.096000001 0.047058824 4294901808 1564025923 773792
1.8099999 -0.64300001 -0.092 0.047058824 4294901819 1564025923 755676
1.814 -0.62900001 -0.093000002 0.047058824 4294901819 1564025923 773145
1.785 -0.59100002 -0.092 0.047058824 4294901812 1564025923 738854
1.784 -0.58899999 -0.092 0.047058824 4294901812 1564025923 723973
1.773 -0.546 -0.092 0.047058824 4294901808 1564025923 723973
1.7640001 -0.491 -0.093000002 0.047058824 4294901804 1564025923 773145
1.758 -0.42500001 -0.093999997 0.047058824 4294901800 1564025923 755676
1.734 -0.347 -0.093000002 0.047058824 4294901793 1564025923 738854
1.73 -0.26800001 -0.093999997 0.047058824 4294901790 1564025923 723973
1.73 -0.183 -0.094999999 0.047058824 4294901788 1564025923 773145
1.727 -0.094999999 -0.096000001 0.047058824 4294901786 1564025923 755676
1.724 0 -0.096000001 0.047058824 4294901785 1564025923 723973
1.719 0.090000004 -0.097000003 0.047058824 4294901785 1564025923 738854
1.719 0.16599999 -0.097000003 0.047058824 4294901785 1564025923 773145
1.724 0.278 -0.097000003 0.047058824 4294901789 1564025923 773145
1.716 0.331 -0.097000003 0.047058824 4294901789 1564025923 738854
1.719 0.37200001 -0.097000003 0.047058824 4294901791 1564025923 723973
1.7 0.47400001 -0.094999999 0.047058824 4294901792 1564025923 723973
1.716 0.528 -0.096000001 0.047058824 4294901797 1564025923 773792
1.72 0.60000002 -0.094999999 0.047058824 4294901802 1564025923 755676
1.66 0.625 -0.092 0.047058824 4294901794 1564025923 739501
1.719 0.67900002 -0.094999999 0.047058824 4294901806 1564025923 755676
1.723 0.70099998 -0.094999999 0.047058824 4294901808 1564025923 773792
1.818 -0.64700001 -0.092 0.047058824 4294901821 1564025923 773145
1.8200001 -0.634 -0.092 0.047058824 4294901820 1564025923 755676
1.788 -0.59600002 -0.090999998 0.047058824 4294901813 1564025923 738854
1.77 -0.54299998 -0.090999998 0.047058824 4294901807 1564025923 738854
1.743 -0.48199999 -0.090999998 0.047058824 4294901800 1564025923 755676
1.745 -0.419 -0.092 0.047058824 4294901797 1564025923 773145
1.727 -0.34200001 -0.092 0.047058824 4294901791 1564025923 723973
1.726 -0.264 -0.093000002 0.047058824 4294901789 1564025923 738854
1.727 -0.178 -0.093999997 0.047058824 4294901787 1564025923 755676
1.724 -0.090000004 -0.094999999 0.047058824 4294901785 1564025923 773145
1.723 -0.014 -0.094999999 0.047058824 4294901785 1564025923 738854
1.725 0.075000003 -0.096000001 0.047058824 4294901785 1564025923 723973
1.721 0.1 -0.096000001 0.047058824 4294901785 1564025923 738854
1.717 0.19 -0.096000001 0.047058824 4294901786 1564025923 755676
1.719 0.245 -0.096000001 0.047058824 4294901787 1564025923 755676
1.717 0.287 -0.096000001 0.047058824 4294901788 1564025923 773145
1.714 0.403 -0.094999999 0.047058824 4294901791 1564025923 738854
1.7180001 0.45899999 -0.094999999 0.047058824 4294901794 1564025923 755676
1.725 0.54299998 -0.094999999 0.047058824 4294901799 1564025923 773792
1.719 0.597 -0.093999997 0.047058824 4294901801 1564025923 723973
1.637 0.61400002 -0.089000002 0.047058824 4294901790 1564025923 739501
1.721 0.67900002 -0.093999997 0.047058824 4294901807 1564025923 723973
1.717 0.699 -0.093000002 0.047058824 4294901807 1564025923 773792
1.8049999 -0.63999999 -0.090000004 0.047058824 4294901818 1564025923 755676
1.812 -0.62599999 -0.090999998 0.047058824 4294901819 1564025923 773145
1.7869999 -0.58600003 -0.090000004 0.047058824 4294901812 1564025923 723973
1.777 -0.55199999 -0.090000004 0.047058824 4294901809 1564025923 723973
1.7690001 -0.53799999 -0.090000004 0.047058824 4294901807 1564025923 738854
1.778 -0.5 -0.090999998 0.047058824 4294901806 1564025923 773145
1.76 -0.433 -0.090999998 0.047058824 4294901800 1564025923 755676
1.732 -0.35499999 -0.090999998 0.047058824 4294901793 1564025923 738854
1.701 -0.27200001 -0.090000004 0.047058824 4294901785 1564025923 723973
1.73 -0.193 -0.093000002 0.047058824 4294901788 1564025923 773145
1.727 -0.104 -0.093999997 0.047058824 4294901786 1564025923 755676
1.726 -0.081 -0.093999997 0.047058824 4294901786 1564025923 773145
1.722 0.0089999996 -0.093999997 0.047058824 4294901785 1564025923 723973
1.727 0.066 -0.094999999 0.047058824 4294901786 1564025923 723973
1.72 0.15700001 -0.094999999 0.047058824 4294901786 1564025923 773145
1.715 0.199 -0.093999997 0.047058824 4294901785 1564025923 755676
1.717 0.32100001 -0.093999997 0.047058824 4294901789 1564025923 755676
1.719 0.38100001 -0.093999997 0.047058824 4294901791 1564025923 739501
1.717 0.47099999 -0.093999997 0.047058824 4294901795 1564025923 723973
1.716 0.53500003 -0.093000002 0.047058824 4294901798 1564025923 773792
1.724 0.59600002 -0.093000002 0.047058824 4294901802 1564025923 755676
1.694 0.634 -0.090999998 0.047058824 4294901800 1564025923 739501
1.7029999 0.64300001 -0.092 0.047058824 4294901802 1564025923 739501
1.719 0.68199998 -0.092 0.047058824 4294901806 1564025923 755676
1.722 0.70200002 -0.092 0.047058824 4294901808 1564025923 773792
1.812 -0.64499998 -0.089000002 0.047058824 4294901820 1564025923 773145
1.822 -0.63700002 -0.090000004 0.047058824 4294901821 1564025923 755676
1.7869999 -0.59899998 -0.089000002 0.047058824 4294901813 1564025923 738854
1.775 -0.55699998 -0.089000002 0.047058824 4294901809 1564025923 723973
1.777 -0.50599998 -0.090000004 0.047058824 4294901806 1564025923 773145
1.7309999 -0.472 -0.088 0.047058824 4294901798 1564025923 755676
1.739 -0.41 -0.089000002 0.047058824 4294901796 1564025923 773145
1.723 -0.333 -0.090000004 0.047058824 4294901790 1564025923 723973
1.734 -0.255 -0.090999998 0.047058824 4294901790 1564025923 738854
1.723 -0.168 -0.092 0.047058824 4294901786 1564025923 755676
1.726 -0.114 -0.092 0.047058824 4294901786 1564025923 755676
1.723 -0.024 -0.093000002 0.047058824 4294901785 1564025923 738854
1.721 0.109 -0.093000002 0.047058824 4294901785 1564025923 738854
1.716 0.235 -0.093000002 0.047058824 4294901787 1564025923 773145
1.719 0.29800001 -0.093000002 0.047058824 4294901789 1564025923 723973
1.719 0.39500001 -0.093000002 0.047058824 4294901792 1564025923 739501
1.715 0.46599999 -0.093000002 0.047058824 4294901794 1564025923 755676
1.7180001 0.53399998 -0.092 0.047058824 4294901798 1564025923 773792
1.722 0.60399997 -0.092 0.047058824 4294901802 1564025923 723973
1.721 0.676 -0.090999998 0.047058824 4294901806 1564025923 723973
1.7180001 0.69800001 -0.090999998 0.047058824 4294901807 1564025923 773792
1.8 -0.63700002 -0.086999997 0.047058824 4294901818 1564025923 755676
1.802 -0.61900002 -0.088 0.047058824 4294901817 1564025923 773145
1.7970001 -0.58499998 -0.088 0.047058824 4294901814 1564025923 723973
1.766 -0.53100002 -0.088 0.047058824 4294901806 1564025923 738854
1.7410001 -0.46799999 -0.086999997 0.047058824 4294901799 1564025923 755676
1.771 -0.44299999 -0.089000002 0.047058824 4294901803 1564025923 755676
1.737 -0.36399999 -0.089000002 0.047058824 4294901794 1564025923 738854
1.735 -0.287 -0.090000004 0.047058824 4294901791 1564025923 723973
1.7359999 -0.20200001 -0.090999998 0.047058824 4294901789 1564025923 773145
1.729 -0.15899999 -0.090999998 0.047058824 4294901787 1564025923 755676
1.724 -0.071000002 -0.090999998 0.047058824 4294901785 1564025923 773145
1.725 0.018999999 -0.092 0.047058824 4294901785 1564025923 723973
1.721 0.056000002 -0.092 0.047058824 4294901785 1564025923 738854
1.717 0.145 -0.092 0.047058824 4294901785 1564025923 723973
1.716 0.20900001 -0.092 0.047058824 4294901786 1564025923 773792
1.7180001 0.31200001 -0.092 0.047058824 4294901789 1564025923 755676
1.721 0.38999999 -0.092 0.047058824 4294901792 1564025923 739501
1.717 0.463 -0.092 0.047058824 4294901794 1564025923 723973
1.715 0.542 -0.090999998 0.047058824 4294901798 1564025923 773792
1.722 0.58899999 -0.090999998 0.047058824 4294901801 1564025923 755676
1.719 0.63800001 -0.090000004 0.047058824 4294901804 1564025923 739501
1.719 0.65399998 -0.090000004 0.047058824 4294901805 1564025923 739501
1.719 0.685 -0.090000004 0.047058824 4294901807 1564025923 755676
1.721 0.70300001 -0.090000004 0.047058824 4294901808 1564025923 773792
1.812 -0.63599998 -0.086999997 0.047058824 4294901819 1564025923 773145
1.803 -0.60799998 -0.086999997 0.047058824 4294901816 1564025923 755676
1.773 -0.56099999 -0.086000003 0.047058824 4294901809 1564025923 738854
1.7640001 -0.509 -0.086999997 0.047058824 4294901805 1564025923 723973
1.757 -0.447 -0.086999997 0.047058824 4294901800 1564025923 773145
1.742 -0.403 -0.086999997 0.047058824 4294901796 1564025923 773145
1.724 -0.32499999 -0.088 0.047058824 4294901790 1564025923 723973
1.738 -0.24699999 -0.089000002 0.047058824 4294901790 1564025923 738854
1.732 -0.212 -0.089000002 0.047058824 4294901788 1564025923 723973
1.727 -0.124 -0.090000004 0.047058824 4294901786 1564025923 773145
1.722 -0.035 -0.090000004 0.047058824 4294901785 1564025923 755676
1.722 0.028999999 -0.090999998 0.047058824 4294901785 1564025923 739501
1.721 0.12 -0.090999998 0.047058824 4294901785 1564025923 755676
1.715 0.22499999 -0.090999998 0.047058824 4294901786 1564025923 773792
1.716 0.30599999 -0.090999998 0.047058824 4294901788 1564025923 723973
1.7180001 0.38600001 -0.090999998 0.047058824 4294901791 1564025923 739501
1.716 0.47499999 -0.090000004 0.047058824 4294901795 1564025923 755676
1.6950001 0.51999998 -0.089000002 0.047058824 4294901794 1564025923 773792
1.7180001 0.60900003 -0.089000002 0.047058824 4294901802 1564025923 723973
1.715 0.67000002 -0.089000002 0.047058824 4294901805 1564025923 723973
1.717 0.69499999 -0.089000002 0.047058824 4294901807 1564025923 773792
1.7920001 -0.63300002 -0.085000001 0.047058824 4294901816 1564025923 773792
1.808 -0.63499999 -0.085000001 0.047058824 4294901819 1564025923 773792
1.795 -0.61400002 -0.085000001 0.047058824 4294901815 1564025923 723973
1.796 -0.58099997 -0.086000003 0.047058824 4294901813 1564025923 739501
1.774 -0.52700001 -0.086000003 0.047058824 4294901807 1564025923 755676
1.763 -0.46700001 -0.086000003 0.047058824 4294901802 1564025923 773792
1.729 -0.391 -0.086000003 0.047058824 4294901794 1564025923 723973
1.745 -0.375 -0.086999997 0.047058824 4294901796 1564025923 755676
1.74 -0.31900001 -0.086999997 0.047058824 4294901793 1564025923 739501
1.751 -0.23899999 -0.089000002 0.047058824 4294901792 1564025923 755676
1.724 -0.149 -0.088 0.047058824 4294901786 1564025923 773792
1.723 -0.059999999 -0.089000002 0.047058824 4294901785 1564025923 723973
1.723 0.046 -0.090000004 0.047058824 4294901785 1564025923 739501
1.724 0.13600001 -0.090000004 0.047058824 4294901786 1564025923 723973
1.717 0.219 -0.090000004 0.047058824 4294901786 1564025923 773792
1.716 0.30199999 -0.090000004 0.047058824 4294901788 1564025923 755676
1.72 0.39899999 -0.090000004 0.047058824 4294901792 1564025923 739501
1.715 0.454 -0.089000002 0.047058824 4294901794 1564025923 723973
1.719 0.551 -0.089000002 0.047058824 4294901799 1564025923 773792
1.722 0.583 -0.089000002 0.047058824 4294901801 1564025923 755676
1.717 0.63200003 -0.088 0.047058824 4294901803 1564025923 739501
1.721 0.65899998 -0.088 0.047058824 4294901805 1564025923 739501
1.7180001 0.68699998 -0.088 0.047058824 4294901807 1564025923 755676
1.72 0.704 -0.088 0.047058824 4294901808 1564025923 773792
1.79 -0.63 -0.082999997 0.047058824 4294901816 1564025923 773792
1.796 -0.611 -0.083999999 0.047058824 4294901815 1564025923 723973
1.796 -0.60900003 -0.083999999 0.047058824 4294901815 1564025923 755676
1.783 -0.56800002 -0.083999999 0.047058824 4294901811 1564025923 739501
1.767 -0.51599997 -0.083999999 0.047058824 4294901805 1564025923 723973
1.7640001 -0.456 -0.085000001 0.047058824 4294901802 1564025923 773792
1.735 -0.38 -0.085000001 0.047058824 4294901794 1564025923 755676
1.836 -0.322 -0.090999998 0.047058824 4294901808 1564025923 739501
1.728 -0.221 -0.086999997 0.047058824 4294901788 1564025923 723973
1.729 -0.134 -0.088 0.047058824 4294901787 1564025923 773792
1.729 -0.044 -0.088 0.047058824 4294901786 1564025923 755676
1.723 0.039000001 -0.089000002 0.047058824 4294901785 1564025923 739501
1.724 0.127 -0.089000002 0.047058824 4294901786 1564025923 723973
1.72 0.131 -0.089000002 0.047058824 4294901785 1564025923 755676
1.7180001 0.21600001 -0.089000002 0.047058824 4294901786 1564025923 773792
1.715 0.315 -0.089000002 0.047058824 4294901789 1564025923 723973
1.7180001 0.37799999 -0.089000002 0.047058824 4294901791 1564025923 739501
1.7180001 0.484 -0.088 0.047058824 4294901795 1564025923 755676
1.693 0.51099998 -0.086999997 0.047058824 4294901793 1564025923 773792
1.719 0.61500001 -0.086999997 0.047058824 4294901802 1564025923 723973
1.7180001 0.66799998 -0.086999997 0.047058824 4294901805 1564025923 723973
1.719 0.69400001 -0.086000003 0.047058824 4294901807 1564025923 773792
1.796 -0.63300002 -0.082000002 0.047058824 4294901817 1564025923 773792
1.793 -0.611 -0.082999997 0.047058824 4294901815 1564025923 755676
1.7970001 -0.57599998 -0.083999999 0.047058824 4294901813 1564025923 739501
1.7640001 -0.51899999 -0.082999997 0.047058824 4294901805 1564025923 755676
1.767 -0.461 -0.083999999 0.047058824 4294901803 1564025923 773792
1.7359999 -0.38499999 -0.083999999 0.047058824 4294901794 1564025923 723973
1.852 -0.331 -0.090999998 0.047058824 4294901811 1564025923 739501
1.72 -0.22499999 -0.085000001 0.047058824 4294901787 1564025923 755676
1.723 -0.14 -0.086000003 0.047058824 4294901786 1564025923 773792
1.728 -0.050000001 -0.086999997 0.047058824 4294901786 1564025923 723973
1.722 0.035999998 -0.086999997 0.047058824 4294901785 1564025923 739501
1.723 0.141 -0.088 0.047058824 4294901786 1564025923 755676
1.716 0.229 -0.088 0.047058824 4294901786 1564025923 773792
1.711 0.292 -0.086999997 0.047058824 4294901787 1564025923 755676
1.717 0.32600001 -0.088 0.047058824 4294901789 1564025923 723973
1.711 0.40599999 -0.086999997 0.047058824 4294901791 1564025923 739501
1.714 0.44600001 -0.086999997 0.047058824 4294901793 1564025923 723973
1.723 0.493 -0.086999997 0.047058824 4294901797 1564025923 755676
1.717 0.55699998 -0.086000003 0.047058824 4294901799 1564025923 773792
1.725 0.57700002 -0.086999997 0.047058824 4294901801 1564025923 755676
1.722 0.62900001 -0.086000003 0.047058824 4294901804 1564025923 739501
1.7180001 0.662 -0.086000003 0.047058824 4294901805 1564025923 739501
1.7180001 0.69 -0.085000001 0.047058824 4294901807 1564025923 755676
1.719 0.704 -0.085000001 0.047058824 4294901808 1564025923 773792
1.789 -0.62800002 -0.081 0.047058824 4294901815 1564025923 773792
1.7970001 -0.60799998 -0.082000002 0.047058824 4294901815 1564025923 723973
1.801 -0.579 -0.082999997 0.047058824 4294901814 1564025923 739501
1.798 -0.57200003 -0.082999997 0.047058824 4294901813 1564025923 739501
1.761 -0.51999998 -0.082000002 0.047058824 4294901805 1564025923 723973
1.778 -0.46599999 -0.083999999 0.047058824 4294901805 1564025923 773792
1.734 -0.38800001 -0.082999997 0.047058824 4294901794 1564025923 755676
1.819 -0.32800001 -0.088 0.047058824 4294901806 1564025923 739501
1.7359999 -0.23100001 -0.085000001 0.047058824 4294901790 1564025923 723973
1.728 -0.14399999 -0.085000001 0.047058824 4294901787 1564025923 773792
1.725 -0.054000001 -0.086000003 0.047058824 4294901785 1564025923 755676
1.727 -0.039999999 -0.086000003 0.047058824 4294901785 1564025923 723973
1.724 0.048999999 -0.086000003 0.047058824 4294901785 1564025923 739501
1.724 0.116 -0.086999997 0.047058824 4294901786 1564025923 723973
1.717 0.206 -0.086000003 0.047058824 4294901786 1564025923 773792
1.717 0.23899999 -0.086000003 0.047058824 4294901787 1564025923 773792
1.714 0.368 -0.086000003 0.047058824 4294901790 1564025923 739501
1.716 0.41600001 -0.086000003 0.047058824 4294901792 1564025923 739501
1.697 0.50599998 -0.085000001 0.047058824 4294901793 1564025923 773792
1.717 0.56400001 -0.085000001 0.047058824 4294901799 1564025923 773792
1.717 0.61900002 -0.085000001 0.047058824 4294901802 1564025923 723973
1.7180001 0.66399997 -0.083999999 0.047058824 4294901805 1564025923 724620
1.72 0.69199997 -0.083999999 0.047058824 4294901807 1564025923 773792
1.7180001 0.704 -0.083999999 0.047058824 4294901808 1564025923 756323
1.7690001 -0.62900001 -0.079000004 0.047058824 4294901812 1564025923 755676
1.7869999 -0.63099998 -0.079999998 0.047058824 4294901815 1564025923 773792
1.814 -0.62099999 -0.081 0.047058824 4294901819 1564025923 755676
1.803 -0.58399999 -0.082000002 0.047058824 4294901815 1564025923 739501
1.7690001 -0.528 -0.081 0.047058824 4294901806 1564025923 723973
1.778 -0.51700002 -0.081 0.047058824 4294901807 1564025923 755676
1.757 -0.45100001 -0.082000002 0.047058824 4294901800 1564025923 773792
1.729 -0.37599999 -0.081 0.047058824 4294901793 1564025923 723973
1.846 -0.32100001 -0.088 0.047058824 4294901810 1564025923 739501
1.726 -0.21699999 -0.082999997 0.047058824 4294901788 1564025923 755676
1.723 -0.13 -0.083999999 0.047058824 4294901786 1564025923 773792
1.725 -0.064000003 -0.085000001 0.047058824 4294901785 1564025923 755676
1.723 0.026000001 -0.085000001 0.047058824 4294901785 1564025923 739501
1.72 0.152 -0.085000001 0.047058824 4294901785 1564025923 755676
1.716 0.28400001 -0.085000001 0.047058824 4294901788 1564025923 755676
1.7180001 0.33500001 -0.085000001 0.047058824 4294901790 1564025923 723973
1.717 0.43799999 -0.085000001 0.047058824 4294901793 1564025923 723973
1.7180001 0.49900001 -0.085000001 0.047058824 4294901796 1564025923 755676
1.724 0.56900001 -0.083999999 0.047058824 4294901801 1564025923 755676
1.719 0.62300003 -0.083999999 0.047058824 4294901803 1564025923 739501
1.716 0.66500002 -0.082999997 0.047058824 4294901805 1564025923 739501
1.719 0.69300002 -0.082999997 0.047058824 4294901807 1564025923 756323
1.717 0.704 -0.082999997 0.047058824 4294901807 1564025923 773792
1.766 -0.62800002 -0.077 0.047058824 4294901812 1564025923 755676
1.794 -0.62800002 -0.079000004 0.047058824 4294901816 1564025923 773792
1.793 -0.60299999 -0.079000004 0.047058824 4294901814 1564025923 723973
1.789 -0.56400001 -0.079999998 0.047058824 4294901811 1564025923 739501
1.767 -0.50700003 -0.079999998 0.047058824 4294901805 1564025923 755676
1.762 -0.46900001 -0.079999998 0.047058824 4294901802 1564025923 773792
1.745 -0.39899999 -0.081 0.047058824 4294901796 1564025923 755676
1.743 -0.32300001 -0.082000002 0.047058824 4294901793 1564025923 739501
1.733 -0.23999999 -0.082000002 0.047058824 4294901789 1564025923 723973
1.724 -0.152 -0.082999997 0.047058824 4294901786 1564025923 773792
1.726 -0.12 -0.082999997 0.047058824 4294901786 1564025923 773792
1.724 -0.028999999 -0.083999999 0.047058824 4294901785 1564025923 723973
1.72 0.059999999 -0.083999999 0.047058824 4294901784 1564025923 739501
1.719 0.106 -0.083999999 0.047058824 4294901785 1564025923 723973
1.716 0.19599999 -0.083999999 0.047058824 4294901785 1564025923 773792
1.717 0.249 -0.083999999 0.047058824 4294901787 1564025923 773792
1.714 0.359 -0.083999999 0.047058824 4294901790 1564025923 739501
1.7180001 0.42500001 -0.083999999 0.047058824 4294901793 1564025923 739501
1.696 0.49700001 -0.082000002 0.047058824 4294901793 1564025923 773792
1.716 0.56999999 -0.082999997 0.047058824 4294901800 1564025923 773792
1.72 0.625 -0.082999997 0.047058824 4294901803 1564025923 724620
1.72 0.66100001 -0.082000002 0.047058824 4294901805 1564025923 724620
1.726 0.69199997 -0.082000002 0.047058824 4294901808 1564025923 773792
1.72 0.704 -0.082000002 0.047058824 4294901808 1564025923 756323
1.784 -0.63099998 -0.077 0.047058824 4294901815 1564025923 773792
1.814 -0.62400001 -0.079000004 0.047058824 4294901819 1564025923 755676
1.812 -0.59100002 -0.079000004 0.047058824 4294901817 1564025923 739501
1.762 -0.53100002 -0.078000002 0.047058824 4294901805 1564025923 723973
1.7359999 -0.46900001 -0.078000002 0.047058824 4294901798 1564025923 773792
1.753 -0.442 -0.079000004 0.047058824 4294901799 1564025923 773792
1.733 -0.36700001 -0.079000004 0.047058824 4294901793 1564025923 723973
1.728 -0.207 -0.081 0.047058824 4294901788 1564025923 755676
1.724 -0.162 -0.082000002 0.047058824 4294901786 1564025923 773792
1.724 -0.074000001 -0.082000002 0.047058824 4294901785 1564025923 755676
1.723 0.016000001 -0.082999997 0.047058824 4294901785 1564025923 739501
1.719 0.07 -0.082999997 0.047058824 4294901784 1564025923 739501
1.7180001 0.161 -0.082999997 0.047058824 4294901785 1564025923 755676
1.717 0.18700001 -0.082999997 0.047058824 4294901786 1564025923 773792
1.716 0.27399999 -0.082999997 0.047058824 4294901787 1564025923 755676
1.719 0.345 -0.082999997 0.047058824 4294901790 1564025923 723973
1.717 0.42899999 -0.082999997 0.047058824 4294901793 1564025923 724620
1.717 0.50599998 -0.082000002 0.047058824 4294901796 1564025923 756323
1.725 0.56400001 -0.082000002 0.047058824 4294901801 1564025923 756323
1.7180001 0.61699998 -0.081 0.047058824 4294901802 1564025923 739501
1.721 0.67000002 -0.081 0.047058824 4294901806 1564025923 739501
1.72 0.69499999 -0.081 0.047058824 4294901807 1564025923 756323
1.77 -0.62900001 -0.075000003 0.047058824 4294901812 1564025923 755676
1.799 -0.62699997 -0.077 0.047058824 4294901817 1564025923 773792
1.786 -0.597 -0.077 0.047058824 4294901813 1564025923 723973
1.7970001 -0.56099999 -0.078000002 0.047058824 4294901813 1564025923 739501
1.774 -0.50300002 -0.078000002 0.047058824 4294901806 1564025923 755676
1.755 -0.43599999 -0.078000002 0.047058824 4294901799 1564025923 773792
1.7539999 -0.40799999 -0.079000004 0.047058824 4294901798 1564025923 755676
1.745 -0.33199999 -0.079000004 0.047058824 4294901794 1564025923 739501
1.735 -0.25 -0.079999998 0.047058824 4294901790 1564025923 723973
1.728 -0.197 -0.079999998 0.047058824 4294901788 1564025923 755676
1.724 -0.109 -0.081 0.047058824 4294901785 1564025923 773792
1.725 -0.018999999 -0.082000002 0.047058824 4294901785 1564025923 723973
1.725 0.097000003 -0.082000002 0.047058824 4294901785 1564025923 723973
1.7180001 0.259 -0.082000002 0.047058824 4294901787 1564025923 773792
1.719 0.34999999 -0.082000002 0.047058824 4294901790 1564025923 739501
1.717 0.433 -0.081 0.047058824 4294901793 1564025923 739501
1.693 0.48899999 -0.079999998 0.047058824 4294901792 1564025923 773792
1.715 0.57599998 -0.079999998 0.047058824 4294901800 1564025923 773792
1.715 0.62900001 -0.079999998 0.047058824 4294901803 1564025923 724620
1.719 0.65600002 -0.079999998 0.047058824 4294901805 1564025923 724620
1.722 0.68800002 -0.079999998 0.047058824 4294901807 1564025923 773792
1.717 0.70200002 -0.079000004 0.047058824 4294901807 1564025923 756323
1.77 -0.62800002 -0.074000001 0.047058824 4294901812 1564025923 755676
1.778 -0.63 -0.075000003 0.047058824 4294901814 1564025923 773792
1.812 -0.62599999 -0.075999998 0.047058824 4294901819 1564025923 755676
1.8 -0.59100002 -0.075999998 0.047058824 4294901815 1564025923 739501
1.76 -0.53600001 -0.075999998 0.047058824 4294901805 1564025923 723973
1.739 -0.47600001 -0.075999998 0.047058824 4294901799 1564025923 773792
1.763 -0.41800001 -0.078000002 0.047058824 4294901800 1564025923 755676
1.7359999 -0.36000001 -0.077 0.047058824 4294901794 1564025923 723973
1.726 -0.336 -0.077 0.047058824 4294901791 1564025923 739501
1.896 -0.30899999 -0.086000003 0.047058824 4294901818 1564025923 739501
1.723 -0.257 -0.078000002 0.047058824 4294901788 1564025923 723973
1.732 -0.17200001 -0.079000004 0.047058824 4294901788 1564025923 773792
1.7309999 -0.083999999 -0.079999998 0.047058824 4294901786 1564025923 755676
1.723 0.0070000002 -0.079999998 0.047058824 4294901785 1564025923 739501
1.724 0.079999998 -0.081 0.047058824 4294901785 1564025923 739501
1.7130001 0.17 -0.081 0.047058824 4294901785 1564025923 755676
1.715 0.176 -0.081 0.047058824 4294901785 1564025923 773792
1.716 0.264 -0.081 0.047058824 4294901787 1564025923 755676
1.719 0.354 -0.081 0.047058824 4294901790 1564025923 724620
1.715 0.41999999 -0.079999998 0.047058824 4294901792 1564025923 724620
1.711 0.51200002 -0.079999998 0.047058824 4294901796 1564025923 756323
1.723 0.55599999 -0.079999998 0.047058824 4294901800 1564025923 756323
1.72 0.61199999 -0.079000004 0.047058824 4294901802 1564025923 739501
1.716 0.634 -0.079000004 0.047058824 4294901803 1564025923 724620
1.717 0.67199999 -0.079000004 0.047058824 4294901805 1564025923 739501
1.724 0.69800001 -0.079000004 0.047058824 4294901808 1564025923 756323
1.775 -0.63 -0.072999999 0.047058824 4294901813 1564025923 773792
1.802 -0.62599999 -0.075000003 0.047058824 4294901817 1564025923 773792
1.8099999 -0.62800002 -0.075000003 0.047058824 4294901818 1564025923 755676
1.784 -0.59200001 -0.075000003 0.047058824 4294901812 1564025923 724620
1.788 -0.55299997 -0.075999998 0.047058824 4294901811 1564025923 739501
1.767 -0.49399999 -0.075999998 0.047058824 4294901804 1564025923 755676
1.7539999 -0.428 -0.075999998 0.047058824 4294901799 1564025923 773792
1.728 -0.34999999 -0.075999998 0.047058824 4294901792 1564025923 723973
1.753 -0.27599999 -0.078000002 0.047058824 4294901793 1564025923 739501
1.7309999 -0.18799999 -0.078000002 0.047058824 4294901788 1564025923 755676
1.725 -0.1 -0.079000004 0.047058824 4294901786 1564025923 773792
1.735 -0.0099999998 -0.079999998 0.047058824 4294901787 1564025923 723973
1.721 -0.0040000002 -0.079000004 0.047058824 4294901784 1564025923 739501
1.728 0.086000003 -0.079999998 0.047058824 4294901786 1564025923 724620
1.715 0.18000001 -0.079999998 0.047058824 4294901785 1564025923 756323
1.719 0.26899999 -0.079999998 0.047058824 4294901788 1564025923 773792
1.7180001 0.34099999 -0.079999998 0.047058824 4294901790 1564025923 739501
1.715 0.44100001 -0.079000004 0.047058824 4294901793 1564025923 739501
1.726 0.49000001 -0.079000004 0.047058824 4294901797 1564025923 773792
1.72 0.58399999 -0.078000002 0.047058824 4294901801 1564025923 773792
1.717 0.65100002 -0.078000002 0.047058824 4294901804 1564025923 739501
1.721 0.685 -0.078000002 0.047058824 4294901807 1564025923 724620
1.716 0.70099998 -0.077 0.047058824 4294901807 1564025923 773792
1.779 -0.63 -0.071999997 0.047058824 4294901814 1564025923 756323
1.806 -0.625 -0.074000001 0.047058824 4294901818 1564025923 773792
1.809 -0.59899998 -0.074000001 0.047058824 4294901816 1564025923 739501
1.768 -0.54400003 -0.074000001 0.047058824 4294901807 1564025923 724620
1.7640001 -0.48899999 -0.074000001 0.047058824 4294901804 1564025923 773792
1.757 -0.42500001 -0.075000003 0.047058824 4294901799 1564025923 755676
1.733 -0.347 -0.075000003 0.047058824 4294901792 1564025923 739501
1.721 -0.26699999 -0.075999998 0.047058824 4294901788 1564025923 724620
1.728 -0.182 -0.077 0.047058824 4294901787 1564025923 773792
1.727 -0.094999999 -0.078000002 0.047058824 4294901786 1564025923 755676
1.725 0 -0.078000002 0.047058824 4294901785 1564025923 724620
1.722 0.090000004 -0.079000004 0.047058824 4294901785 1564025923 739501
1.723 0.167 -0.079000004 0.047058824 4294901786 1564025923 773792
1.716 0.25400001 -0.078000002 0.047058824 4294901787 1564025923 756323
1.716 0.27700001 -0.078000002 0.047058824 4294901788 1564025923 773792
1.7180001 0.36300001 -0.078000002 0.047058824 4294901790 1564025923 724620
1.7130001 0.41100001 -0.078000002 0.047058824 4294901792 1564025923 724620
1.716 0.52100003 -0.078000002 0.047058824 4294901797 1564025923 756323
1.721 0.54799998 -0.078000002 0.047058824 4294901799 1564025923 773792
1.721 0.60600001 -0.077 0.047058824 4294901802 1564025923 756323
1.719 0.63999999 -0.077 0.047058824 4294901804 1564025923 739501
1.717 0.676 -0.075999998 0.047058824 4294901806 1564025923 756323
1.7180001 0.69800001 -0.075999998 0.047058824 4294901807 1564025923 773792
1.785 -0.634 -0.071000002 0.047058824 4294901815 1564025923 773792
1.806 -0.62900001 -0.071999997 0.047058824 4294901818 1564025923 756323
1.79 -0.59600002 -0.071999997 0.047058824 4294901813 1564025923 739501
1.786 -0.58899999 -0.071999997 0.047058824 4294901812 1564025923 724620
1.775 -0.54400003 -0.072999999 0.047058824 4294901808 1564025923 739501
1.7539999 -0.484 -0.072999999 0.047058824 4294901802 1564025923 756323
1.7539999 -0.41999999 -0.074000001 0.047058824 4294901799 1564025923 773792
1.727 -0.34200001 -0.074000001 0.047058824 4294901791 1564025923 724620
1.729 -0.26300001 -0.075000003 0.047058824 4294901789 1564025923 739501
1.724 -0.178 -0.075999998 0.047058824 4294901787 1564025923 756323
1.723 -0.090000004 -0.075999998 0.047058824 4294901785 1564025923 773792
1.724 -0.013 -0.077 0.047058824 4294901785 1564025923 739501
1.724 0.075999998 -0.077 0.047058824 4294901785 1564025923 724620
1.719 0.19 -0.077 0.047058824 4294901786 1564025923 756323
1.716 0.331 -0.077 0.047058824 4294901789 1564025923 739501
1.717 0.37099999 -0.077 0.047058824 4294901791 1564025923 724620
1.712 0.44800001 -0.077 0.047058824 4294901793 1564025923 739501
1.711 0.477 -0.075999998 0.047058824 4294901794 1564025923 724620
1.717 0.58999997 -0.075999998 0.047058824 4294901801 1564025923 724620
1.717 0.64700001 -0.075000003 0.047058824 4294901804 1564025923 739501
1.719 0.68199998 -0.075000003 0.047058824 4294901806 1564025923 724620
1.7180001 0.69999999 -0.075000003 0.047058824 4294901807 1564025923 773792
1.786 -0.63200003 -0.07 0.047058824 4294901815 1564025923 756323
1.819 -0.62699997 -0.071999997 0.047058824 4294901820 1564025923 773792
1.788 -0.58600003 -0.071000002 0.047058824 4294901813 1564025923 724620
1.774 -0.551 -0.071000002 0.047058824 4294901808 1564025923 724620
1.778 -0.53899997 -0.071999997 0.047058824 4294901808 1564025923 739501
1.771 -0.498 -0.071999997 0.047058824 4294901805 1564025923 773792
1.755 -0.43200001 -0.072999999 0.047058824 4294901799 1564025923 756323
1.7410001 -0.35699999 -0.072999999 0.047058824 4294901794 1564025923 739501
1.7309999 -0.27700001 -0.074000001 0.047058824 4294901790 1564025923 724620
1.728 -0.192 -0.075000003 0.047058824 4294901787 1564025923 773792
1.74 -0.105 -0.075999998 0.047058824 4294901788 1564025923 756323
1.726 -0.081 -0.075000003 0.047058824 4294901785 1564025923 773792
1.726 0.0089999996 -0.075999998 0.047058824 4294901785 1564025923 724620
1.722 0.1 -0.075999998 0.047058824 4294901785 1564025923 739501
1.7180001 0.15700001 -0.075999998 0.047058824 4294901785 1564025923 773792
1.719 0.245 -0.075999998 0.047058824 4294901787 1564025923 756323
1.7180001 0.287 -0.075999998 0.047058824 4294901788 1564025923 773792
1.714 0.403 -0.075999998 0.047058824 4294901791 1564025923 739501
1.716 0.45899999 -0.075999998 0.047058824 4294901794 1564025923 756323
1.716 0.528 -0.075000003 0.047058824 4294901797 1564025923 773792
1.722 0.542 -0.075000003 0.047058824 4294901799 1564025923 773792
1.7180001 0.59899998 -0.075000003 0.047058824 4294901801 1564025923 756323
1.719 0.64499998 -0.074000001 0.047058824 4294901804 1564025923 739501
1.716 0.67900002 -0.074000001 0.047058824 4294901806 1564025923 756323
1.721 0.69999999 -0.074000001 0.047058824 4294901808 1564025923 773792
1.788 -0.63499999 -0.068999998 0.047058824 4294901816 1564025923 773792
1.813 -0.634 -0.07 0.047058824 4294901819 1564025923 756323
1.796 -0.602 -0.07 0.047058824 4294901815 1564025923 739501
1.777 -0.55699998 -0.07 0.047058824 4294901809 1564025923 724620
1.777 -0.505 -0.071000002 0.047058824 4294901806 1564025923 773792
1.749 -0.47600001 -0.07 0.047058824 4294901800 1564025923 756323
1.7539999 -0.41299999 -0.071999997 0.047058824 4294901798 1564025923 773792
1.723 -0.333 -0.071999997 0.047058824 4294901790 1564025923 724620
1.719 -0.25299999 -0.071999997 0.047058824 4294901787 1564025923 739501
1.728 -0.169 -0.074000001 0.047058824 4294901787 1564025923 756323
1.727 -0.114 -0.074000001 0.047058824 4294901786 1564025923 756323
1.721 -0.024 -0.075000003 0.047058824 4294901784 1564025923 739501
1.723 0.066 -0.075000003 0.047058824 4294901785 1564025923 724620
1.719 0.11 -0.075000003 0.047058824 4294901785 1564025923 739501
1.716 0.2 -0.075000003 0.047058824 4294901786 1564025923 756323
1.716 0.235 -0.075000003 0.047058824 4294901786 1564025923 773792
1.72 0.32100001 -0.075000003 0.047058824 4294901789 1564025923 756323
1.716 0.38 -0.075000003 0.047058824 4294901791 1564025923 739501
1.714 0.47 -0.074000001 0.047058824 4294901794 1564025923 724620
1.715 0.53500003 -0.074000001 0.047058824 4294901797 1564025923 773792
1.717 0.59600002 -0.074000001 0.047058824 4294901801 1564025923 724620
1.7180001 0.64300001 -0.072999999 0.047058824 4294901804 1564025923 739501
1.719 0.67799997 -0.072999999 0.047058824 4294901806 1564025923 724620
1.7180001 0.699 -0.072999999 0.047058824 4294901807 1564025923 773792
1.791 -0.63300002 -0.068000004 0.047058824 4294901816 1564025923 756323
1.812 -0.62199998 -0.068999998 0.047058824 4294901818 1564025923 773792
1.79 -0.58200002 -0.068999998 0.047058824 4294901813 1564025923 724620
1.768 -0.53100002 -0.068999998 0.047058824 4294901806 1564025923 739501
1.747 -0.46900001 -0.068999998 0.047058824 4294901800 1564025923 756323
1.7640001 -0.44100001 -0.071000002 0.047058824 4294901801 1564025923 756323
1.742 -0.36500001 -0.071000002 0.047058824 4294901795 1564025923 739501
1.749 -0.289 -0.071999997 0.047058824 4294901793 1564025923 724620
1.73 -0.20200001 -0.071999997 0.047058824 4294901788 1564025923 773792
1.726 -0.15899999 -0.072999999 0.047058824 4294901786 1564025923 756323
1.727 -0.07 -0.072999999 0.047058824 4294901785 1564025923 773792
1.721 0.02 -0.074000001 0.047058824 4294901784 1564025923 724620
1.719 0.145 -0.074000001 0.047058824 4294901785 1564025923 724620
1.716 0.29699999 -0.074000001 0.047058824 4294901788 1564025923 724620
1.715 0.39399999 -0.074000001 0.047058824 4294901791 1564025923 739501
1.714 0.46599999 -0.072999999 0.047058824 4294901794 1564025923 756323
1.725 0.53600001 -0.072999999 0.047058824 4294901799 1564025923 773792
1.72 0.59399998 -0.072999999 0.047058824 4294901801 1564025923 756323
1.719 0.64899999 -0.071999997 0.047058824 4294901804 1564025923 739501
1.7180001 0.68199998 -0.071999997 0.047058824 4294901806 1564025923 756323
1.7180001 0.69999999 -0.071999997 0.047058824 4294901807 1564025923 773792
1.808 -0.63300002 -0.068000004 0.047058824 4294901818 1564025923 773792
1.817 -0.61199999 -0.068999998 0.047058824 4294901819 1564025923 756323
1.775 -0.56099999 -0.068000004 0.047058824 4294901809 1564025923 739501
1.762 -0.50800002 -0.068000004 0.047058824 4294901804 1564025923 724620
1.765 -0.449 -0.068999998 0.047058824 4294901802 1564025923 773792
1.74 -0.40200001 -0.068999998 0.047058824 4294901796 1564025923 773792
1.749 -0.375 -0.07 0.047058824 4294901796 1564025923 756323
1.726 -0.32499999 -0.07 0.047058824 4294901791 1564025923 724620
1.732 -0.24600001 -0.071000002 0.047058824 4294901789 1564025923 739501
1.73 -0.212 -0.071000002 0.047058824 4294901788 1564025923 724620
1.727 -0.124 -0.071999997 0.047058824 4294901786 1564025923 773792
1.721 -0.035 -0.071999997 0.047058824 4294901784 1564025923 756323
1.724 0.056000002 -0.072999999 0.047058824 4294901785 1564025923 739501
1.7180001 0.12 -0.072999999 0.047058824 4294901785 1564025923 756323
1.716 0.20900001 -0.072999999 0.047058824 4294901786 1564025923 773792
1.717 0.226 -0.072999999 0.047058824 4294901786 1564025923 773792
1.715 0.31200001 -0.072999999 0.047058824 4294901788 1564025923 756323
1.716 0.389 -0.072999999 0.047058824 4294901791 1564025923 739501
1.7130001 0.46200001 -0.071999997 0.047058824 4294901794 1564025923 724620
1.716 0.542 -0.071999997 0.047058824 4294901798 1564025923 773792
1.715 0.60100001 -0.071000002 0.047058824 4294901801 1564025923 724620
1.719 0.63800001 -0.071000002 0.047058824 4294901804 1564025923 739501
1.7180001 0.67500001 -0.071000002 0.047058824 4294901806 1564025923 724620
1.716 0.69700003 -0.07 0.047058824 4294901807 1564025923 773792
1.7920001 -0.63200003 -0.066 0.047058824 4294901816 1564025923 773792
1.811 -0.61799997 -0.067000002 0.047058824 4294901818 1564025923 724620
1.784 -0.57599998 -0.067000002 0.047058824 4294901811 1564025923 739501
1.776 -0.52700001 -0.067000002 0.047058824 4294901807 1564025923 756323
1.749 -0.463 -0.067000002 0.047058824 4294901800 1564025923 773792
1.734 -0.39199999 -0.068000004 0.047058824 4294901794 1564025923 724620
1.72 -0.315 -0.068000004 0.047058824 4294901789 1564025923 739501
1.8380001 -0.31299999 -0.072999999 0.047058824 4294901808 1564025923 739501
1.728 -0.235 -0.07 0.047058824 4294901788 1564025923 756323
1.724 -0.149 -0.07 0.047058824 4294901786 1564025923 773792
1.723 -0.059999999 -0.071000002 0.047058824 4294901785 1564025923 724620
1.7180001 0.028999999 -0.071000002 0.047058824 4294901784 1564025923 739501
1.721 0.046 -0.071000002 0.047058824 4294901784 1564025923 739501
1.714 0.13500001 -0.071000002 0.047058824 4294901784 1564025923 724620
1.715 0.219 -0.071999997 0.047058824 4294901786 1564025923 773792
1.72 0.30700001 -0.071999997 0.047058824 4294901789 1564025923 724620
1.711 0.38499999 -0.071000002 0.047058824 4294901790 1564025923 739501
1.714 0.47400001 -0.071000002 0.047058824 4294901794 1564025923 756323
1.722 0.528 -0.071000002 0.047058824 4294901798 1564025923 773792
1.719 0.588 -0.07 0.047058824 4294901801 1564025923 756323
1.711 0.65100002 -0.068999998 0.047058824 4294901803 1564025923 739501
1.714 0.68300003 -0.068999998 0.047058824 4294901806 1564025923 756323
1.7180001 0.70099998 -0.068999998 0.047058824 4294901807 1564025923 773792
1.807 -0.63499999 -0.064999998 0.047058824 4294901818 1564025923 773792
1.809 -0.63499999 -0.064999998 0.047058824 4294901819 1564025923 773792
1.799 -0.61000001 -0.066 0.047058824 4294901816 1564025923 756323
1.777 -0.56599998 -0.064999998 0.047058824 4294901810 1564025923 739501
1.757 -0.51300001 -0.066 0.047058824 4294901804 1564025923 724620
1.763 -0.45500001 -0.067000002 0.047058824 4294901802 1564025923 773792
1.74 -0.38100001 -0.067000002 0.047058824 4294901795 1564025923 756323
1.749 -0.30599999 -0.068999998 0.047058824 4294901794 1564025923 739501
1.729 -0.221 -0.068999998 0.047058824 4294901788 1564025923 724620
1.729 -0.133 -0.068999998 0.047058824 4294901786 1564025923 773792
1.725 -0.044 -0.07 0.047058824 4294901785 1564025923 756323
1.725 0.039999999 -0.07 0.047058824 4294901785 1564025923 739501
1.7180001 0.131 -0.071000002 0.047058824 4294901785 1564025923 756323
1.715 0.21600001 -0.071000002 0.047058824 4294901786 1564025923 773792
1.7180001 0.303 -0.071000002 0.047058824 4294901788 1564025923 756323
1.719 0.317 -0.071000002 0.047058824 4294901789 1564025923 724620
1.717 0.398 -0.07 0.047058824 4294901792 1564025923 739501
1.714 0.454 -0.07 0.047058824 4294901794 1564025923 724620
1.717 0.55000001 -0.068999998 0.047058824 4294901799 1564025923 773792
1.716 0.60799998 -0.068999998 0.047058824 4294901801 1564025923 724620
1.72 0.634 -0.068999998 0.047058824 4294901804 1564025923 739501
1.719 0.67199999 -0.068000004 0.047058824 4294901806 1564025923 724620
1.716 0.69499999 -0.068000004 0.047058824 4294901807 1564025923 774439
1.812 -0.63800001 -0.064000003 0.047058824 4294901819 1564025923 773792
1.799 -0.61299998 -0.064000003 0.047058824 4294901816 1564025923 756323
1.8 -0.611 -0.064000003 0.047058824 4294901816 1564025923 724620
1.7819999 -0.57099998 -0.064000003 0.047058824 4294901811 1564025923 739501
1.767 -0.51899999 -0.064999998 0.047058824 4294901805 1564025923 756323
1.76 -0.45899999 -0.066 0.047058824 4294901801 1564025923 773792
1.734 -0.384 -0.066 0.047058824 4294901794 1564025923 724620
1.714 -0.30599999 -0.066 0.047058824 4294901788 1564025923 739501
1.729 -0.226 -0.067000002 0.047058824 4294901788 1564025923 756323
1.724 -0.14 -0.068000004 0.047058824 4294901786 1564025923 773792
1.724 -0.048999999 -0.068999998 0.047058824 4294901785 1564025923 724620
1.725 0.035999998 -0.068999998 0.047058824 4294901785 1564025923 739501
1.72 0.126 -0.068999998 0.047058824 4294901785 1564025923 724620
1.714 0.228 -0.068999998 0.047058824 4294901786 1564025923 773792
1.716 0.377 -0.068999998 0.047058824 4294901791 1564025923 739501
1.719 0.484 -0.068999998 0.047058824 4294901796 1564025923 756323
1.7 0.51300001 -0.068000004 0.047058824 4294901794 1564025923 774439
1.722 0.583 -0.068000004 0.047058824 4294901801 1564025923 756323
1.715 0.61299998 -0.068000004 0.047058824 4294901802 1564025923 724620
1.717 0.65700001 -0.067000002 0.047058824 4294901804 1564025923 739501
1.7130001 0.68599999 -0.067000002 0.047058824 4294901806 1564025923 756323
1.721 0.704 -0.067000002 0.047058824 4294901808 1564025923 774439
1.806 -0.634 -0.063000001 0.047058824 4294901818 1564025923 773792
1.804 -0.61000001 -0.063000001 0.047058824 4294901816 1564025923 724620
1.778 -0.57099998 -0.063000001 0.047058824 4294901810 1564025923 739501
1.7640001 -0.52100003 -0.064000003 0.047058824 4294901805 1564025923 724620
1.762 -0.46200001 -0.064000003 0.047058824 4294901802 1564025923 773792
1.737 -0.389 -0.064999998 0.047058824 4294901795 1564025923 756323
1.716 -0.30899999 -0.064999998 0.047058824 4294901788 1564025923 739501
1.729 -0.23 -0.066 0.047058824 4294901788 1564025923 724620
1.725 -0.14300001 -0.067000002 0.047058824 4294901786 1564025923 773792
1.722 -0.054000001 -0.068000004 0.047058824 4294901785 1564025923 756323
1.725 -0.039999999 -0.068000004 0.047058824 4294901785 1564025923 724620
1.722 0.048999999 -0.068000004 0.047058824 4294901785 1564025923 739501
1.717 0.14 -0.068000004 0.047058824 4294901785 1564025923 756323
1.714 0.206 -0.068000004 0.047058824 4294901785 1564025923 773792
1.716 0.29300001 -0.068000004 0.047058824 4294901788 1564025923 756323
1.724 0.32699999 -0.068999998 0.047058824 4294901790 1564025923 724620
1.715 0.40700001 -0.068000004 0.047058824 4294901792 1564025923 739501
1.7130001 0.44600001 -0.068000004 0.047058824 4294901793 1564025923 724620
1.7130001 0.55599999 -0.067000002 0.047058824 4294901798 1564025923 774439
1.717 0.62800002 -0.067000002 0.047058824 4294901803 1564025923 739501
1.714 0.66600001 -0.066 0.047058824 4294901805 1564025923 724620
1.72 0.69400001 -0.066 0.047058824 4294901807 1564025923 774439
1.808 -0.64300001 -0.061999999 0.047058824 4294901819 1564025923 756323
1.813 -0.63999999 -0.061999999 0.047058824 4294901820 1564025923 773792
1.812 -0.62 -0.061999999 0.047058824 4294901818 1564025923 756323
1.784 -0.57700002 -0.061999999 0.047058824 4294901811 1564025923 739501
1.7819999 -0.56599998 -0.061999999 0.047058824 4294901810 1564025923 739501
1.76 -0.51099998 -0.061999999 0.047058824 4294901804 1564025923 756323
1.761 -0.45199999 -0.063000001 0.047058824 4294901801 1564025923 773792
1.733 -0.37599999 -0.063000001 0.047058824 4294901793 1564025923 724620
1.74 -0.301 -0.064999998 0.047058824 4294901792 1564025923 739501
1.726 -0.21699999 -0.064999998 0.047058824 4294901788 1564025923 756323
1.726 -0.13 -0.066 0.047058824 4294901786 1564025923 773792
1.725 -0.064000003 -0.066 0.047058824 4294901785 1564025923 756323
1.722 0.026000001 -0.067000002 0.047058824 4294901785 1564025923 739501
